# .PCD v0.7 - Point Cloud Data file format
VERSION 0.7
FIELDS x y z
SIZE 4 4 4
TYPE F F F
COUNT 1 1 1
WIDTH 1593
HEIGHT 1
VIEWPOINT 0 0 0 1 0 0 0
POINTS 1593
DATA ascii
-0.48688459 0.55599999 0.21111396
-0.59506375 -0.124 0.37094906
-0.57934159 -0.107 0.38728347
-0.58442354 -0.093999997 0.38550192
-0.58120984 -0.079999998 0.3903673
-0.6447078 -0.074000001 0.33406451
-0.61964762 -0.057 0.35800159
-0.62273139 -0.043000001 0.35613343
-0.62477285 -0.028999999 0.355221
-0.6299414 -0.015 0.35144129
-0.63202614 -0.001 0.34952974
-0.65843189 0.088 0.31764346
-0.67107022 0.105 0.30317724
-0.67328495 0.121 0.29826856
-0.69222081 0.14 0.27706873
-0.70907199 0.161 0.25778049
-0.74160206 0.186 0.22315682
-0.67506355 0.185 0.28032875
-0.62814796 0.338 0.25427243
-0.65064412 0.36899999 0.22021475
-0.624888 0.373 0.23711514
-0.61802447 0.38800001 0.23381484
-0.4727245 0.53899997 0.2145039
-0.59120041 -0.111 0.39080039
-0.58898574 -0.097000003 0.39570907
-0.52543855 -0.086999997 0.40696746
-0.59206957 -0.083999999 0.39384085
-0.6148718 -0.072999999 0.37581149
-0.55975014 -0.068000004 0.37742573
-0.65743577 -0.063000001 0.34062186
-0.57634145 -0.057 0.36413181
-0.63867313 -0.046999998 0.35782543
-0.64488399 -0.032000002 0.35308999
-0.59297609 -0.033 0.34983885
-0.63962883 -0.017999999 0.35886779
-0.59610319 -0.02 0.34697157
-0.64692539 -0.003 0.35217753
-0.66481894 0.071000002 0.33193347
-0.67011744 0.086999997 0.32515663
-0.67233211 0.102 0.32024792
-0.54628593 0.075999998 0.38785237
-0.69222379 0.121 0.30009049
-0.6955241 0.138 0.29322702
-0.71545905 0.15899999 0.2720705
-0.72709841 0.17900001 0.257561
-0.75545895 0.204 0.22676036
-0.73847491 0.25299999 0.22602411
-0.66185915 0.25999999 0.28476104
-0.66789097 0.35299999 0.23797838
-0.64843237 0.361 0.24814516
-0.64578164 0.37900001 0.24002279
-0.62211031 0.384 0.25501165
-0.61211967 0.39700001 0.25457856
-0.62227768 0.38 0.20497192
-0.61115801 0.39199999 0.20749272
-0.49340162 0.54900002 0.22240679
-0.48901266 0.56900001 0.20820338
-0.47884881 0.51999998 0.21176654
-0.47606814 0.579 0.20664132
-0.47220185 0.53600001 0.20347087
-0.65305859 -0.105 0.41850537
-0.62178153 -0.108 0.40113452
-0.59154689 -0.112 0.38280788
-0.63950771 -0.088 0.43093017
-0.60927314 -0.092 0.41260353
-0.58833313 -0.097999997 0.38767326
-0.64671773 -0.074000001 0.42623803
-0.61643976 -0.079000004 0.40891042
-0.59033126 -0.086000003 0.38775986
-0.6611377 -0.059999999 0.41685376
-0.62569118 -0.067000002 0.40330586
-0.60379547 -0.075000003 0.37733325
-0.69722497 -0.059 0.34635049
-0.6557408 -0.067000002 0.33354184
-0.51927096 -0.066 0.41070387
-0.69201314 -0.043000001 0.35112923
-0.64944327 -0.052999999 0.34027541
-0.68367416 -0.027000001 0.35877529
-0.64314568 -0.039000001 0.347009
-0.56613427 -0.048999999 0.36869404
-0.75000203 -7.2621554e-17 0.35264212
-0.69192648 -0.013 0.35312739
-0.63480675 -0.025 0.35465497
-0.57755703 -0.039000001 0.35917982
-0.68571562 0.001 0.35786286
-0.6441015 -0.012 0.34805137
-0.58481038 -0.027000001 0.35348862
-0.64305907 0.001 0.3490071
-0.59314936 -0.016000001 0.3458426
-0.59102124 -0.0040000002 0.34875318
-0.72424591 0.064999998 0.36954251
-0.7284587 0.082000002 0.36472043
-0.68684459 0.061999999 0.35490894
-0.71925062 0.097999997 0.36932597
-0.70560724 0.079000004 0.3377054
-0.74209613 0.118 0.35029748
-0.70669293 0.094999999 0.33575061
-0.67541587 0.071999997 0.3183797
-0.74018461 0.13500001 0.34821278
-0.70369571 0.11 0.33562067
-0.67654485 0.086999997 0.31542587
-0.74548316 0.153 0.34143591
-0.71620423 0.12800001 0.32415164
-0.68596953 0.103 0.30582497
-0.62546277 0.071000002 0.31621423
-0.7507816 0.17200001 0.33465901
-0.72462982 0.146 0.31450748
-0.69330943 0.119 0.2981357
-0.62654853 0.083999999 0.31425947
-0.74787104 0.189 0.33253098
-0.72892922 0.164 0.30768728
-0.70486212 0.13600001 0.28562427
-0.63493073 0.098999999 0.30561438
-0.7397486 0.205 0.33518165
-0.7301448 0.18099999 0.30273527
-0.71228868 0.154 0.27593684
-0.63601649 0.112 0.30365953
-0.73583895 0.222 0.33301032
-0.73965609 0.2 0.29113635
-0.72071421 0.171 0.26629269
-0.62672174 0.124 0.31026322
-0.73188597 0.23899999 0.33183804
-0.73466074 0.21600001 0.29091981
-0.74481869 0.19400001 0.24131317
-0.73006111 0.25600001 0.32775515
-0.73483402 0.233 0.28692356
-0.76996553 0.21799999 0.21537791
-0.72615153 0.273 0.32558376
-0.72883958 0.249 0.28666368
-0.72749704 0.29300001 0.31763461
-0.71867573 0.264 0.29022685
-0.73908418 0.243 0.23505896
-0.71216464 0.30500001 0.32497743
-0.70951098 0.278 0.29383335
-0.72262281 0.255 0.24535568
-0.69691885 0.317 0.33032221
-0.70564461 0.294 0.29066288
-0.72596645 0.273 0.2374931
-0.70660335 0.34099999 0.31472698
-0.70282072 0.31099999 0.28653669
-0.71997207 0.289 0.23723325
-0.68823045 0.35100001 0.32293898
-0.69791204 0.32699999 0.28432205
-0.67219627 0.28600001 0.27720162
-0.69066167 0.37200001 0.31303498
-0.69091856 0.34200001 0.2840189
-0.66399312 0.37599999 0.32789391
-0.6776709 0.354 0.28945023
-0.67689133 0.40400001 0.30743337
-0.67284882 0.37099999 0.28523743
-0.65004367 0.32699999 0.28024507
-0.66064656 0.414 0.31273475
-0.66694111 0.38600001 0.28297949
-0.67545038 0.35800001 0.24831547
-0.65899193 0.40099999 0.28163391
-0.66324508 0.37 0.25279105
-0.65000033 0.41499999 0.28124413
-0.65733731 0.38600001 0.2505331
-0.59236091 0.31299999 0.29476053
-0.64200491 0.39500001 0.25787592
-0.65029764 0.361 0.22820726
-0.63084203 0.40700001 0.26139578
-0.64117616 0.37400001 0.23081468
-0.63101232 0.38600001 0.23437785
-0.61876369 0.39700001 0.23985249
-0.50882655 0.55800003 0.25910929
-0.51377559 0.588 0.23730314
-0.5023095 0.54900002 0.24781646
-0.49770397 0.56900001 0.23860835
-0.73225319 -0.057999998 0.4849976
-0.6977191 -0.068000004 0.47349119
-0.68064553 -0.079999998 0.45173132
-0.66370183 -0.094999999 0.4269743
-0.7311675 -0.039999999 0.48695242
-0.70280105 -0.052999999 0.47170961
-0.68060219 -0.064999998 0.45273039
-0.66053134 -0.081 0.43084061
-0.74450177 -0.024 0.47952297
-0.71309483 -0.037999999 0.46514925
-0.68364263 -0.050999999 0.45186126
-0.66352856 -0.068000004 0.43097055
-0.76400369 -0.0070000002 0.46835709
-0.73359573 -0.022 0.4540267
-0.70522928 -0.037 0.43878388
-0.67069519 -0.054000001 0.42727745
-0.72581685 -0.023 0.4256632
-0.83549118 0.067000002 0.38937902
-0.84431249 0.108 0.41678682
-0.87362581 0.089000002 0.36400679
-0.81872958 0.124 0.42969093
-0.82220024 0.102 0.39580947
-0.82371604 0.079000004 0.36084229
-0.76435012 0.134 0.46036458
-0.8109507 0.119 0.40132743
-0.82788551 0.097999997 0.35701928
-0.76446825 0.064000003 0.36528051
-0.73568344 0.146 0.47513694
-0.79974449 0.13600001 0.40584633
-0.80938274 0.113 0.36822847
-0.77476203 0.081 0.35872015
-0.72860336 0.162 0.47683188
-0.76994884 0.148 0.42357254
-0.78366989 0.127 0.38412976
-0.77480531 0.097000003 0.35772109
-0.72256571 0.178 0.4775711
-0.72990268 0.15800001 0.44686005
-0.77550417 0.14300001 0.38777953
-0.77380627 0.113 0.35767779
-0.71652806 0.19400001 0.47831032
-0.72178024 0.17299999 0.44951075
-0.7621699 0.15700001 0.39520904
-0.78210193 0.131 0.3510308
-0.70844895 0.20900001 0.47996196
-0.71157306 0.18700001 0.45407295
-0.74162561 0.17 0.40733066
-0.77493525 0.147 0.3547239
-0.70653743 0.226 0.47787723
-0.7096616 0.20299999 0.45198822
-0.71799755 0.18099999 0.42132047
-0.76776856 0.162 0.35841697
-0.70258451 0.242 0.4767049
-0.70258152 0.21799999 0.45368317
-0.70987517 0.19499999 0.42397121
-0.74818003 0.17399999 0.37158099
-0.69454867 0.257 0.47735751
-0.69346005 0.23199999 0.4562906
-0.70483661 0.20999999 0.4247537
-0.72142494 0.184 0.38843808
-0.6978057 0.27700001 0.47149307
-0.69571805 0.25 0.45038283
-0.70392412 0.226 0.42271224
-0.71013206 0.197 0.39495507
-0.75157595 0.31799999 0.43178454
-0.70618504 0.27200001 0.43982625
-0.6988855 0.241 0.42349482
-0.70192307 0.211 0.3996039
-0.75904572 0.34200001 0.42109805
-0.72186393 0.296 0.4244909
-0.70422727 0.26100001 0.41571885
-0.71030527 0.23 0.39095888
-0.80260873 0.38299999 0.38595173
-0.76229984 0.333 0.39221182
-0.73332703 0.28999999 0.39095587
-0.72598422 0.252 0.37562349
-0.79153246 0.40000001 0.38747343
-0.76047492 0.352 0.38812897
-0.73245788 0.308 0.3879154
-0.71990317 0.26699999 0.37736177
-0.76486099 0.375 0.3793107
-0.74505299 0.33199999 0.37444827
-0.74591917 0.29499999 0.35446697
-0.80334204 0.41600001 0.34594595
-0.77115554 0.36399999 0.34955534
-0.73679769 0.31 0.35707441
-0.77345687 0.38499999 0.34264857
-0.74730802 0.333 0.34551874
-0.77580142 0.40799999 0.3347427
-0.75786161 0.35800001 0.33296406
-0.76985037 0.426 0.33348379
-0.75707912 0.37799999 0.32792544
-0.76398593 0.44499999 0.33022672
-0.74795765 0.39300001 0.33053282
-0.744048 0.41100001 0.32836148
-0.73709792 0.42899999 0.32705927
-0.73218918 0.447 0.32484457
-0.79698747 -0.046 0.5848949
-0.79390365 -0.027000001 0.58676314
-0.78890538 -0.039999999 0.56352484
-0.79286128 -0.0080000004 0.58771884
-0.78890538 -0.022 0.56352484
-0.78594857 -0.035999998 0.53937411
-0.77482605 -0.052999999 0.51887321
-0.80519348 -0.0040000002 0.55722433
-0.77565479 -0.018999999 0.5459345
-0.77786648 -0.037 0.51800406
-0.77573848 -0.021 0.52091461
-0.7654447 -0.0040000002 0.52747494
-0.76549679 0.098999999 0.59554106
-0.76658249 0.117 0.59358627
-0.7664929 0.098999999 0.57256263
-0.77175111 0.13699999 0.58980656
-0.7655372 0.117 0.57152027
-0.77261424 0.098999999 0.54680359
-0.76467103 0.154 0.59150153
-0.75945622 0.134 0.57325858
-0.75832427 0.114 0.55319071
-0.8605662 0.104 0.48055056
-0.75659186 0.171 0.59315318
-0.76054186 0.15099999 0.57130373
-0.75424135 0.13 0.55501562
-0.7633599 0.108 0.52938646
-0.7525956 0.18799999 0.59297997
-0.75037801 0.167 0.57486689
-0.75432801 0.147 0.5530175
-0.75723565 0.124 0.5321238
-0.75068414 0.206 0.59089524
-0.73925841 0.182 0.57738769
-0.74416417 0.162 0.55658066
-0.75006896 0.139 0.53581691
-0.7406069 0.222 0.59246027
-0.74238551 0.20100001 0.57452047
-0.73908222 0.178 0.55836225
-0.74503034 0.155 0.5365994
-0.72844493 0.237 0.59593678
-0.73739022 0.21699999 0.57430393
-0.73712742 0.19499999 0.55727655
-0.74094743 0.17 0.53842425
-0.72045243 0.25299999 0.59559029
-0.72318679 0.23100001 0.57869285
-0.73617166 0.212 0.55623418
-0.7328251 0.185 0.54107499
-0.72466522 0.273 0.59076822
-0.71515101 0.24600001 0.57934546
-0.72913492 0.227 0.55693007
-0.73082691 0.20100001 0.54098839
-0.7227537 0.29100001 0.58868349
-0.71523762 0.264 0.57734734
-0.71897107 0.242 0.56049323
-0.73087025 0.21799999 0.53998929
-0.72292697 0.31099999 0.58468723
-0.71740901 0.28299999 0.57343769
-0.71397579 0.257 0.56027669
-0.72279108 0.23199999 0.541641
-0.72105873 0.33000001 0.58160341
-0.71549749 0.301 0.57135296
-0.70997953 0.27399999 0.56010342
-0.71054256 0.245 0.54711562
-0.72839868 0.354 0.57391411
-0.71975356 0.32300001 0.56553185
-0.7172761 0.29499999 0.55341315
-0.70963013 0.26199999 0.54507422
-0.76640338 0.39399999 0.55153906
-0.72809255 0.34599999 0.55788583
-0.71432227 0.31200001 0.55228418
-0.71180141 0.28099999 0.54116458
-0.75024515 0.40799999 0.55484235
-0.8101396 0.40799999 0.51239651
-0.78407741 0.36300001 0.51326859
-0.70780516 0.29699999 0.54099137
-0.73517257 0.421 0.55619085
-0.75814807 0.403 0.5341652
-0.84571016 0.41499999 0.47690374
-0.78885317 0.35100001 0.49545872
-0.73643154 0.44499999 0.5502398
-0.74099076 0.41499999 0.53742522
-0.79880047 0.414 0.49689087
-0.8248598 0.38800001 0.47299704
-0.72340041 0.46000001 0.55067587
-0.73095685 0.43099999 0.53799117
-0.76930803 0.41999999 0.50762367
-0.83011496 0.41299999 0.46721923
-0.71241069 0.47600001 0.55019945
-0.72509241 0.45100001 0.53473419
-0.7418136 0.42699999 0.51844305
-0.79137105 0.41600001 0.48355663
-0.70993328 0.463 0.53808075
-0.73073733 0.442 0.51996475
-0.7658748 0.42300001 0.49446264
-0.72178912 0.45899999 0.51857591
-0.7414642 0.43099999 0.5034138
-0.71075612 0.47400001 0.51909858
-0.72834647 0.44499999 0.50584799
-0.713144 0.458 0.51019365
-2.2220728 -1.405 0.22127286
-1.6136097 -0.92000002 0.26496187
-1.6050541 -0.87099999 0.27760321
-1.6260778 -0.838 0.27751365
-1.6341342 -0.82499999 0.43801314
-0.81476879 0.083999999 0.70577842
-0.81681019 0.104 0.70486599
-0.81055307 0.090000004 0.6875788
-0.81889498 0.124 0.70295447
-0.80351627 0.108 0.68827468
-0.8168968 0.14399999 0.70286787
-0.81467921 0.12899999 0.68475485
-0.79721582 0.112 0.67198652
-0.80003679 0.094999999 0.65309101
-0.81190151 0.162 0.70265132
-0.80455869 0.146 0.68731892
-0.81042016 0.132 0.66755426
-0.78987294 0.111 0.65665412
-0.80082524 0.18000001 0.70417303
-0.80460203 0.16500001 0.68631989
-0.7921772 0.147 0.67276907
-0.80611783 0.131 0.6513527
-0.79582995 0.199 0.70395648
-0.7914843 0.18099999 0.68875402
-0.79321957 0.16500001 0.67181331
-0.79391253 0.147 0.6558283
-0.78879315 0.21699999 0.70465243
-0.78344846 0.198 0.68940663
-0.78514045 0.182 0.67346495
-0.78787488 0.163 0.65656751
-0.78384119 0.235 0.70343679
-0.78553319 0.21799999 0.68749511
-0.77202272 0.197 0.67589909
-0.78887391 0.18099999 0.65661085
-0.79608977 0.259 0.69796216
-0.77545595 0.234 0.68906015
-0.76698411 0.214 0.67668164
-0.77367145 0.19499999 0.6609565
-0.76881194 0.271 0.70378625
-0.77250212 0.25299999 0.68793118
-0.77210933 0.234 0.67390096
-0.76155275 0.20999999 0.66343397
-0.78918296 0.29899999 0.69566083
-0.78171021 0.27599999 0.68332565
-0.7721526 0.25299999 0.67290193
-0.75547177 0.226 0.66517228
-0.77510947 0.31400001 0.69705266
-0.7615124 0.28799999 0.68745476
-0.75295389 0.26499999 0.67707437
-0.75043315 0.242 0.66595477
-0.78231949 0.33899999 0.69236052
-0.78188342 0.31600001 0.6793294
-0.76316106 0.28799999 0.67251217
-0.75555837 0.26199999 0.66317415
-0.78952944 0.36399999 0.68766838
-0.77489001 0.33500001 0.67902625
-0.76832968 0.31 0.66873246
-0.76372409 0.28299999 0.65952432
-0.77549922 0.38 0.68806112
-0.78414142 0.36000001 0.67342162
-0.76737386 0.329 0.66769004
-0.76585215 0.303 0.65661377
-0.76802653 0.37400001 0.67572588
-0.7654624 0.34900001 0.66560537
-0.76181263 0.32100001 0.65743959
-0.75846893 0.366 0.66530216
-0.77002168 0.34400001 0.65279078
-0.72810733 0.37200001 0.67299443
-0.76402724 0.36199999 0.65253091
-0.73940015 0.398 0.66647738
-0.76307154 0.38100001 0.65148854
-0.74387282 0.39199999 0.65566099
-0.75008368 0.417 0.65092552
-0.65157229 0.38100001 0.68368983
-1.4843005 1.681 0.29238734
-1.4178427 1.682 0.30151772
-1.506147 1.675 0.27331564
-1.3452606 1.6720001 0.31338537
-1.440645 1.678 0.28348836
-1.5339445 1.674 0.25550279
-1.322672 1.724 0.30339772
-1.3740573 1.676 0.29561585
-1.4713964 1.6799999 0.26680452
-1.3194987 1.803 0.2842423
-1.3258425 1.693 0.29953137
-1.4058077 1.6799999 0.27897534
-1.508968 1.678 0.25442007
-1.3266624 1.902 0.2575275
-1.3246672 1.773 0.28046259
-1.3452578 1.682 0.29036364
-1.441208 1.677 0.27050054
-1.3206217 1.989 0.23524494
-1.3072039 1.835 0.26769426
-1.3235382 1.733 0.28341648
-1.3765318 1.676 0.28471276
-1.3146244 2.0780001 0.21196337
-1.3255737 1.951 0.23646054
-1.3182802 1.8099999 0.26617259
-1.3302718 1.6950001 0.28971401
-1.3184907 2.039 0.2151338
-1.3365635 1.924 0.23693694
-1.3227991 1.766 0.27737877
-1.3211848 1.997 0.22225714
-1.3164552 1.8430001 0.2620897
-1.3171422 2.0910001 0.20006128
-1.3357376 1.962 0.23289743
-1.3213147 2.0369999 0.21925999
1.0333724 2.424 0.23029105
1.0343281 2.1719999 0.2292487
1.0369296 2.2780001 0.26617068
1.0264655 1.949 0.23259237
1.0328034 2.043 0.2633467
1.0334501 2.1340001 0.30135441
1.0280306 1.783 0.22251509
1.0256801 1.845 0.26065272
1.0251977 1.9170001 0.29570645
1.025931 1.994 0.33571225
1.0494872 1.7309999 0.23259531
1.0257638 1.751 0.28567255
1.025368 1.813 0.32272446
1.0241033 1.878 0.36281687
1.0981815 1.726 0.22447883
1.0647705 1.727 0.28498253
1.0351392 1.735 0.34031779
1.0192349 1.768 0.38905233
1.1517843 1.725 0.21414761
1.117461 1.724 0.27669281
1.0859181 1.729 0.33411276
1.0554177 1.733 0.39248848
1.2043881 1.722 0.20385973
1.1760157 1.728 0.26514602
1.141649 1.725 0.32669216
1.1121908 1.73 0.38602364
1.2317033 1.724 0.25672635
1.1993347 1.725 0.31818587
1.1729172 1.7309999 0.37838647
1.2873477 1.7180001 0.24730758
1.2599744 1.724 0.30855057
1.2297337 1.723 0.37292069
1.3498988 1.719 0.23558755
1.3177034 1.7180001 0.30104333
1.2943697 1.724 0.36311215
1.4124498 1.7180001 0.22386754
1.3802978 1.715 0.29032236
1.3600478 1.724 0.35425937
1.4838192 1.724 0.20776153
1.4517971 1.719 0.27721348
1.424727 1.7180001 0.34544992
1.5183878 1.716 0.26631933
1.5032197 1.726 0.33203793
1.5977497 1.722 0.2498668
1.5797144 1.728 0.31871244
1.6820637 1.73 0.23219867
1.6582505 1.727 0.30629948
-0.74933761 -3.4690001 0.25251937
-0.77305526 -3.8670001 0.25955322
-0.85297722 -3.543 0.23999621
-0.85654336 -3.813 0.27318177
-0.87101549 -3.4820001 0.33186358
-1.0156944 -3.497 0.25005272
-0.9599753 -3.4860001 0.33471903
-1.0995723 -3.477 0.25468978
-1.0438099 -3.4630001 0.34035516
-1.1907034 -3.4820001 0.25363556
-1.1358101 -3.4660001 0.34234142
-1.280749 -3.477 0.25453621
-1.226768 -3.4619999 0.34528351
-1.3810881 -3.4979999 0.24887651
-1.312644 -3.4419999 0.35000712
-1.4382108 -2.5769999 0.2703706
-1.4319596 -2.438 0.29912683
-1.4102981 -2.6259999 0.40628922
-1.4322716 -2.48 0.36119857
-1.435003 -2.3239999 0.32127944
-1.4325836 -2.5250001 0.42327034
-1.4332737 -2.3559999 0.3842636
-1.4340502 -2.211 0.34325877
-1.4336349 -2.572 0.4913798
-1.4377118 -2.402 0.44351143
-1.4344056 -2.2420001 0.40433151
-1.4331408 -2.1059999 0.3642391
-1.4316397 -2.4300001 0.51431489
-1.4357599 -2.276 0.46544749
-1.4314979 -2.1300001 0.42522514
-1.4710184 -2.063 0.36788294
-1.4338573 -2.3050001 0.53242797
-1.4298551 -2.1530001 0.48621124
-1.4581262 -2.0650001 0.434387
-1.5353049 -2.056 0.36266226
-1.4310364 -2.181 0.55132347
-1.443279 -2.0669999 0.49980536
-1.528407 -2.0639999 0.42942613
-1.6067146 -2.056 0.35474747
-1.4373801 -2.0799999 0.56661254
-1.5104327 -2.0580001 0.49771175
-1.593649 -2.053 0.42524782
-1.683163 -2.059 0.34605026
-1.4994086 -2.062 0.5672996
-1.5857087 -2.059 0.49296746
-1.6720091 -2.0550001 0.41863531
-1.7566143 -2.0550001 0.33722305
-1.5735557 -2.0580001 0.56550914
-1.661984 -2.0569999 0.48826644
-1.7524537 -2.059 0.41011128
-1.8279808 -2.046 0.33030739
-1.6548262 -2.059 0.56102473
-1.7412562 -2.0539999 0.48369536
-1.8287721 -2.053 0.4044112
-1.735011 -2.056 0.55849504
-1.8225701 -2.052 0.47821185
-1.8222758 -2.056 0.55427045
-2.2217007 -1.455 0.36839479
-1.5393366 -1.026 0.6390962
-1.5494945 -0.99699998 0.58948958
-1.5577409 -0.972 0.53779829
-1.5238369 -0.99900001 0.69647878
-1.5542359 -0.98400003 0.64174402
-1.5427756 -0.95899999 0.69830072
-2.6090248 -1.33 0.32312691
-2.6118693 -1.331 0.48840523
-2.7339909 -1.3200001 0.30352071
-2.7456105 -1.319 0.47418404
-3.2046359 -1.325 0.32192114
-3.2795506 -1.3279999 0.21006066
-3.2604768 -1.3279999 0.51151747
-3.3383021 -1.326 0.40178502
-3.4060936 -1.319 0.2926186
-3.4776168 -1.3200001 0.4899013
-3.5738149 -1.324 0.37195691
-3.6499021 -1.3200001 0.25614351
-3.7580872 -1.323 0.46202204
-3.8020055 -0.373 0.48794848
-3.8013413 -0.37799999 0.38782573
-3.7985487 -0.382 0.29061359
-1.95026 -0.14300001 0.69594628
-3.7911775 -0.28799999 0.39138889
-3.8024585 -0.296 0.29278493
-1.9311478 -0.096000001 0.69812059
-1.9333134 -0.101 0.64816749
-1.9120791 0.041999999 0.69929582
-1.9322277 0.032000002 0.65012228
-1.9090819 0.088 0.69916594
-1.9100751 0.075999998 0.65316576
-1.9352622 0.064999998 0.60320973
-1.9594505 0.050000001 0.55321038
-1.9503348 0.11 0.60186124
-1.9664438 0.093000002 0.55351353
-1.8337625 0.21699999 0.70490927
-1.7862811 0.19599999 0.66881907
-1.8287672 0.26100001 0.70469272
-1.8305862 0.244 0.66273212
-1.8570007 0.31099999 0.699911
-1.8397077 0.289 0.66012472
-0.87185413 0.12800001 0.77431506
-0.86559689 0.116 0.75702786
-3.7725534 0.72399998 0.47466043
-0.86377496 0.147 0.7759667
-0.85043776 0.133 0.76037449
-0.85895586 0.176 0.79477566
-0.86177689 0.16599999 0.7758801
-0.86355549 0.155 0.75794029
-0.74854231 0.18099999 0.8250221
-0.78650373 0.18000001 0.80364615
-0.85169965 0.184 0.77744514
-0.85347825 0.17200001 0.75950533
-0.73551118 0.19599999 0.82545817
-0.74219853 0.18799999 0.80973303
-0.80335486 0.193 0.78435785
-0.83228141 0.186 0.76359111
-0.72347915 0.212 0.82593751
-0.73316365 0.204 0.81034231
-0.74793005 0.197 0.79296553
-0.80200642 0.198 0.76928532
-0.71344525 0.227 0.82650352
-0.73485565 0.212 0.79440063
-0.75561649 0.204 0.77728373
-0.71852714 0.248 0.82472193
-0.71109766 0.233 0.81138766
-0.72178125 0.22499999 0.79583573
-0.74149966 0.21799999 0.77967459
-0.72864765 0.271 0.8221578
-0.72621357 0.257 0.80904007
-0.73085946 0.24600001 0.79422742
-0.73142248 0.23199999 0.78123957
-0.78268069 0.29800001 0.79947662
-0.73389989 0.266 0.79335827
-0.72538471 0.248 0.78197879
-0.83375984 0.324 0.77566653
-0.81820792 0.30000001 0.76498294
-0.84388036 0.34900001 0.7731024
-0.82328981 0.322 0.76320136
-0.82533133 0.34400001 0.76228893
-0.85460722 0.37900001 0.75655144
-0.84757048 0.398 0.75724733
-1.5459776 1.678 0.6013484
-1.4818212 1.684 0.60357195
-1.5426309 1.665 0.58618927
-1.4095422 1.679 0.60844618
-1.4874661 1.6799999 0.58880258
-1.3463848 1.683 0.61071301
-1.4171419 1.676 0.5947625
-1.4980197 1.6799999 0.57624787
-1.3276625 1.74 0.60389578
-1.3538979 1.679 0.59902745
-1.43369 1.683 0.58246762
-1.5203888 1.684 0.56820911
-1.3150644 1.809 0.59434122
-1.3280522 1.725 0.59490424
-1.3622802 1.675 0.5903824
-1.4499348 1.6799999 0.5771662
-1.3298309 1.921 0.57696444
-1.3244891 1.804 0.5847404
-1.3242292 1.706 0.59073478
-1.382478 1.676 0.58625323
-1.3243995 2.0120001 0.56371677
-1.3310899 1.904 0.57101339
-1.3216218 1.783 0.58161324
-1.3301804 1.688 0.59199363
-1.3220953 2.112 0.54760182
-1.3245727 1.9910001 0.55972052
-1.3264872 1.7640001 0.58482701
-1.318792 2.2190001 0.5314436
-1.32418 2.092 0.54569036
-1.3235737 1.9680001 0.55967718
-1.3035954 1.817 0.58183277
-1.3155321 2.3340001 0.51428634
-1.3187487 2.1919999 0.53244269
-1.3230944 2.0669999 0.54764515
-1.3323054 1.947 0.56606138
-1.3164444 2.3050001 0.5163278
-1.3186188 2.165 0.53543985
-1.3236604 2.0309999 0.55767912
-1.3030639 2.408 0.50173461
-1.3151855 2.2739999 0.52227885
-1.3251357 2.1370001 0.54673272
-1.3118389 2.391 0.50711966
-1.3216159 2.243 0.53556979
-1.3191384 2.358 0.52345115
-1.2893399 2.4349999 0.51815563
1.0398657 2.3859999 0.40317205
1.0359532 2.2390001 0.42836514
1.0347316 2.3640001 0.46945661
1.0279578 2.099 0.45173335
1.0366403 2.2290001 0.49039358
1.0374601 2.355 0.53239751
1.0238286 1.98 0.4719311
1.0285581 2.0869999 0.51176369
1.0314195 2.201 0.55467999
1.0345408 2.3310001 0.60359073
1.0255206 1.8789999 0.48787278
1.0223876 1.961 0.53104901
1.0262047 2.0639999 0.57292295
1.0312808 2.1830001 0.62074798
1.0212183 1.777 0.50407434
1.0230372 1.859 0.54603493
1.0209033 1.941 0.58916783
1.0210706 2.0350001 0.63920754
1.0493652 1.7359999 0.50685793
1.0216454 1.761 0.56010842
1.0185558 1.83 0.60428369
1.0215902 1.921 0.65119624
1.0962346 1.727 0.50282425
1.0596964 1.734 0.56046075
1.0249832 1.7460001 0.61401445
1.0201552 1.811 0.6642707
1.1519655 1.728 0.49540365
1.110562 1.726 0.55625391
1.0759354 1.738 0.61180568
1.0344886 1.738 0.67165685
1.2066972 1.727 0.48802635
1.1703323 1.732 0.54965913
1.1258885 1.727 0.60964024
1.0894369 1.734 0.66927487
1.2644262 1.725 0.48051915
1.2221537 1.724 0.54440981
1.1867013 1.732 0.60400116
1.1433862 1.728 0.66693616
1.3192015 1.719 0.47414088
1.2829232 1.726 0.53777176
1.2435613 1.727 0.59953445
1.2022877 1.726 0.66338187
1.3808402 1.721 0.46446228
1.3426937 1.724 0.53117698
1.3014635 1.722 0.59602344
1.2661843 1.729 0.65961105
1.4455193 1.722 0.4556528
1.4044622 1.72 0.52449554
1.3662292 1.723 0.58921212
1.3280828 1.724 0.65592682
1.5042474 1.715 0.44810227
1.4751358 1.726 0.51542628
1.4330797 1.722 0.58431232
1.3949766 1.723 0.65202606
1.5797863 1.722 0.43581924
1.5379468 1.717 0.5097006
1.5008861 1.72 0.57837009
1.4648676 1.723 0.64799535
1.6523714 1.723 0.42466518
1.6126165 1.721 0.50045806
1.5746434 1.722 0.57116896
1.5367135 1.722 0.64287895
1.7230016 1.719 0.41459683
1.6892411 1.722 0.49012983
1.6553508 1.727 0.56266564
1.6155094 1.726 0.63646036
1.7201599 1.714 0.55685335
1.6923505 1.724 0.63112742
3.6357915 -0.198 0.50684226
3.595058 -0.22400001 0.42152631
3.6267998 -0.28600001 0.50723201
3.7194448 -0.197 0.21995011
3.580344 -0.25099999 0.33608341
3.6000967 -0.31 0.42230883
3.6287544 -0.375 0.50614637
3.5587664 -0.26800001 0.25394085
3.5824287 -0.33399999 0.33799493
3.5970995 -0.396 0.42243874
3.6187639 -0.463 0.50657946
3.5588961 -0.347 0.25693804
3.5765643 -0.417 0.34125197
3.5951447 -0.47999999 0.42352444
3.6187205 -0.55199999 0.50558043
3.566932 -0.42699999 0.25759062
3.5766075 -0.49900001 0.342251
3.605092 -0.56800002 0.42209229
3.5601118 -0.50700003 0.26189002
-0.76018655 -3.902 0.51023108
-0.786861 -3.598 0.54141557
-0.74204201 -3.6289999 0.60553467
-0.87199783 -3.595 0.54010153
-0.7266289 -3.822 0.66091907
-0.8819077 -3.8529999 0.5885762
-0.93367976 -3.4990001 0.54878104
-1.0187732 -3.493 0.54846609
-0.75782818 -3.8169999 0.74935329
-0.9746502 -3.5090001 0.61962193
-1.1039101 -3.4879999 0.54715204
-0.97704697 -3.7030001 0.67978215
-1.0566165 -3.4879999 0.6221742
-1.1870054 -3.4760001 0.54675043
-1.1012771 -3.812 0.67715997
-1.1436216 -3.484 0.62394398
-1.2782233 -3.483 0.54369813
-1.2327112 -3.483 0.62380224
-1.3663571 -3.4749999 0.54251403
-1.323799 -3.4849999 0.62374711
-1.4387778 -2.5710001 0.62672949
-1.4392571 -2.4400001 0.63876152
-1.4403516 -2.4920001 0.70587194
-1.4428203 -2.326 0.64892542
-1.4443568 -2.549 0.77511036
-1.4429591 -2.368 0.71499342
-1.440389 -2.21 0.65882939
-1.4410132 -2.4089999 0.78297293
-1.441527 -2.2479999 0.72494072
-1.4339184 -2.096 0.66955924
-1.4436728 -2.464 0.86016053
-1.4406234 -2.2850001 0.79196447
-1.4341437 -2.128 0.73362911
-1.477877 -2.059 0.67146486
-1.4434129 -2.3340001 0.86615491
-1.4403203 -2.1700001 0.79895788
-1.4589471 -2.0610001 0.73870808
-1.5460732 -2.056 0.66841549
-1.4371587 -2.2030001 0.87188941
-1.4480962 -2.075 0.80429971
-1.5270565 -2.0550001 0.73765683
-1.6152682 -2.0510001 0.66540945
-1.4379411 -2.0940001 0.87692803
-1.5080831 -2.0569999 0.8058992
-1.5991622 -2.052 0.73677886
-1.692499 -2.0510001 0.66175079
-1.4858528 -2.0550001 0.88000596
-1.5830995 -2.0550001 0.80714923
-1.6743083 -2.05 0.73503172
-1.7707292 -2.052 0.65813547
-1.5627805 -2.056 0.88334072
-1.6571167 -2.0510001 0.80835599
-1.7514093 -2.046 0.73437029
-1.8439205 -2.043 0.65530264
-1.6407508 -2.0539999 0.88571978
-1.7331753 -2.0450001 0.80865026
-1.8325498 -2.0439999 0.73288304
-1.7146813 -2.0439999 0.88892466
-1.5235395 -1.025 0.74951565
-1.5000041 -1.002 0.80755079
-1.5314455 -0.98199999 0.75186026
-1.5450917 -0.98100001 0.80650258
-1.5286362 -0.963 0.86284274
-2.6176362 -1.346 0.7478984
-3.1967249 -1.327 0.61985809
-3.1535754 -1.327 0.83018667
-3.2653253 -1.319 0.72292584
-3.3834598 -1.318 0.60693324
-3.2419405 -1.3279999 0.93911588
-3.3548632 -1.3200001 0.82790208
-3.4809468 -1.3150001 0.71325511
-3.604336 -1.314 0.59148473
-3.4530025 -1.318 0.94225973
-3.591248 -1.316 0.8241362
-3.7376592 -1.316 0.70236284
-3.7191427 -1.317 0.9447884
-3.7976925 -0.42500001 0.72598499
-3.790381 -0.41100001 0.61756659
-3.7950714 -0.37400001 0.94807988
-3.7928851 -0.35499999 0.83688086
-3.7945654 -0.33700001 0.72885227
-3.7982438 -0.32800001 0.62091029
-2.0401185 -0.15099999 0.93205947
-2.0006266 -0.14 0.873294
-1.9649576 -0.13 0.81869799
-1.9331982 -0.124 0.76627332
-2.0331252 -0.101 0.93175632
-1.9431888 -0.082000002 0.76670641
-1.8850906 0.041999999 0.92934281
-1.9024154 0.044 0.87604314
-1.9216948 0.046 0.82382911
-1.8968422 0.044 0.77370572
-1.8611132 0.086000003 0.92830342
-1.89742 0.088 0.8758266
-1.8775628 0.088 0.82591975
-1.8917602 0.085000001 0.7754873
-3.7164919 0.53500003 0.93666595
-1.9625756 0.27599999 0.87364638
-1.9045808 0.26300001 0.82609004
-1.8825521 0.252 0.78009284
-1.9015777 0.29699999 0.77991664
-0.76953441 0.148 0.91801852
-0.79646283 0.15000001 0.89716518
-0.82538939 0.152 0.8763985
-0.7495532 0.164 0.91715235
-0.7654053 0.163 0.89782077
-0.77322161 0.161 0.87914175
-0.78911704 0.15899999 0.85881108
-0.73152679 0.178 0.91737187
-0.73534685 0.175 0.89851958
-0.74616033 0.17299999 0.87997049
-0.7469399 0.167 0.86198741
-0.73057103 0.197 0.9163295
-0.7203176 0.189 0.89886904
-0.73912358 0.189 0.88066643
-0.73990315 0.183 0.8626833
-0.72058046 0.213 0.91589636
-0.72036088 0.207 0.89786994
-0.73082495 0.198 0.86429167
-0.72162277 0.23199999 0.91494066
-0.72235906 0.226 0.89795661
-0.72409433 0.221 0.88101584
-0.73386544 0.21600001 0.86342251
-0.71562839 0.249 0.91468078
-0.72135997 0.244 0.89791328
-0.71605855 0.236 0.88166845
-0.71175617 0.227 0.86546689
-0.71363026 0.26800001 0.91459417
-0.71840608 0.26199999 0.89678431
-0.73013198 0.259 0.88027662
-0.72278917 0.248 0.86494422
-0.7747463 0.31200001 0.91323978
-0.73942965 0.289 0.89669472
-0.73412824 0.28 0.88044989
-0.73681939 0.271 0.86455148
-0.75923479 0.30899999 0.87853539
-0.73182398 0.28799999 0.86433494
-1.3855972 1.681 0.86064577
-1.3306489 1.694 0.85826379
-1.3764294 1.678 0.84123051
-1.3268691 1.774 0.85309523
-1.3264331 1.696 0.84006417
-1.3751243 1.6849999 0.82515889
-1.4287242 1.6720001 0.81246835
-1.3266064 1.78 0.83606786
-1.3310789 1.7079999 0.82525146
-1.369563 1.677 0.81490844
-1.3243051 1.955 0.84297472
-1.3221741 1.78 0.82286352
-1.3294274 1.705 0.81717235
-1.3235658 2.056 0.83693701
-1.3289509 1.966 0.82816201
-1.3213049 1.8660001 0.81982303
-1.330513 1.7869999 0.81521749
-1.3208718 2.1600001 0.82981366
-1.3241721 2.059 0.82295018
-1.3254311 1.965 0.81699908
-1.3221741 2.2809999 0.82286352
-1.3193501 2.1600001 0.81873739
-1.3225639 2.059 0.81387198
-1.3296006 1.966 0.8131761
-1.3154837 2.395 0.81556696
-1.3176118 2.2739999 0.81265634
-1.320739 2.165 0.80978912
-1.32669 2.0599999 0.81104803
-1.3158735 2.3959999 0.80657536
-1.3189141 2.277 0.80570626
-1.321738 2.1559999 0.80983245
-1.31609 2.395 0.80158007
-1.3218246 2.2720001 0.80783433
-1.3189141 2.3889999 0.80570626
1.0358773 2.3710001 0.68060511
1.0342691 2.23 0.68968326
1.034523 2.3529999 0.74172109
1.0266663 2.0910001 0.69902128
1.0298742 2.2049999 0.74993014
1.0322129 2.3310001 0.80387944
1.0220175 1.969 0.70723033
1.0241829 2.0699999 0.75718343
1.0324295 2.1930001 0.80887479
1.0301626 2.3099999 0.87203223
1.0203226 1.862 0.71431041
1.0204465 1.948 0.76335102
1.0236976 2.049 0.81525892
1.0292934 2.168 0.87507272
1.0215815 1.768 0.72026145
1.019664 1.844 0.76838964
1.0208738 1.9299999 0.81938511
1.0233858 2.0309999 0.87733066
1.056592 1.737 0.71974468
1.0238769 1.755 0.77321172
1.0200479 1.825 0.82342464
1.0165222 1.904 0.88063103
1.1074575 1.733 0.71553779
1.0688347 1.74 0.77126282
1.0261723 1.739 0.82616198
1.018607 1.803 0.88254255
1.1563249 1.724 0.71141756
1.1207858 1.735 0.76901072
1.0811639 1.7410001 0.82477903
1.0356776 1.7359999 0.88380438
1.2141838 1.726 0.70690751
1.1767334 1.732 0.76658541
1.1342008 1.734 0.82448179
1.0897568 1.733 0.88446289
1.2720428 1.724 0.70239747
1.2306392 1.727 0.76324767
1.1891925 1.729 0.82309884
1.1438361 1.726 0.88512141
1.3348538 1.727 0.69667178
1.2865869 1.721 0.76082236
1.2451833 1.723 0.82167262
1.2049088 1.727 0.88547671
1.3917136 1.72 0.69220507
1.3475295 1.719 0.7581805
1.3151609 1.733 0.81964004
1.2649391 1.725 0.88487631
1.4565228 1.72 0.68639278
1.4134244 1.721 0.75432307
1.371195 1.722 0.81921285
1.3290089 1.724 0.88510174
1.5253282 1.722 0.68040729
1.4803181 1.721 0.7504223
1.4381754 1.723 0.81731021
1.3960761 1.725 0.88519722
1.5921352 1.719 0.67450839
1.5502092 1.721 0.74639159
1.5111504 1.726 0.8151477
1.4631865 1.721 0.88629174
1.6708878 1.725 0.66709071
1.6290483 1.728 0.74097204
1.5801288 1.722 0.81315845
1.5342498 1.721 0.88621396
1.6989827 1.722 0.73794043
1.6590979 1.726 0.81073612
1.6173018 1.73 0.88561654
1.6914055 1.724 0.88640791
3.6602247 -0.19400001 0.6779446
3.6757617 -0.23 0.78236967
3.7194891 -0.271 0.89057744
3.6317861 -0.235 0.57608068
3.6633084 -0.278 0.67981279
3.6798012 -0.317 0.7831955
3.7274814 -0.36300001 0.89023095
3.6438615 -0.31600001 0.57755911
3.6623957 -0.36199999 0.68185425
3.6868811 -0.405 0.78489047
3.7174909 -0.45300001 0.89066404
3.6400385 -0.398 0.58172858
3.6614835 -0.447 0.68389565
3.677933 -0.49200001 0.78627932
3.7134948 -0.54400003 0.89083731
3.646163 -0.48100001 0.58446592
3.6526217 -0.53200001 0.68728262
3.6392994 -0.56300002 0.58776623
-1.4521909 -2.562 0.89456171
-1.4491503 -2.4260001 0.89543086
-1.4451629 -2.461 0.96432281
-1.4431126 -2.296 0.89617008
-1.4471266 -2.5079999 1.0344737
-1.4451629 -2.335 0.96432281
-1.4390732 -2.177 0.8969959
-1.443532 -2.552 1.1173958
-1.4451718 -2.3740001 1.033388
-1.4432081 -2.2160001 0.96323711
-1.4430261 -2.079 0.89816821
-1.4467024 -2.4219999 1.1135294
-1.4462576 -2.256 1.0314332
-1.4432081 -2.108 0.96323711
-1.4971054 -2.0550001 0.89750969
-1.4398823 -2.2839999 1.10923
-1.4423479 -2.1370001 1.0292618
-1.4782186 -2.0550001 0.96375388
-1.5671697 -2.0510001 0.89754415
-1.4440084 -2.1730001 1.1064061
-1.462329 -2.0599999 1.030128
-1.5491953 -2.053 0.96582973
-1.6412301 -2.05 0.89775181
-1.4460931 -2.0669999 1.1044946
-1.531221 -2.053 1.0341154
-1.6281644 -2.0550001 0.96825212
-1.7152905 -2.046 0.89795953
-1.5129004 -2.056 1.1103935
-1.6071063 -2.052 1.0384059
-1.6990979 -2.0469999 0.97132707
-1.5916963 -2.0569999 1.1168121
-1.6819928 -2.046 1.0426532
-1.6684508 -2.052 1.1241431
-1.5677788 -0.977 0.90657902
-1.5732594 -0.97600001 0.96487105
-1.583692 -0.977 1.0243787
-1.6058102 -0.98500001 1.0913996
-3.1113205 -1.319 0.90442628
-3.1764905 -1.3200001 1.0173547
-3.318516 -1.3200001 0.90439969
-3.2384903 -1.322 1.1341494
-3.3773887 -1.314 1.0240617
-3.5317059 -1.314 0.90463299
-3.2929773 -1.318 1.2626297
-3.4481201 -1.314 1.1472406
-3.6182923 -1.313 1.031502
-3.5241966 -1.312 1.2856653
-3.7066174 -1.313 1.1644521
-3.7934599 -0.42399999 0.91597998
-3.7887137 -0.39700001 1.1640071
-3.7970812 -0.366 1.0402534
-3.7934167 -0.33899999 0.91697901
-3.8080168 -0.34 1.295967
-3.8036997 -0.30899999 1.1646568
-2.0739193 -0.15099999 0.98357171
-2.0227849 -0.13500001 0.91629398
-2.1198072 -0.138 1.1256924
-2.0660655 -0.119 1.0492933
-2.0529389 -0.103 0.9826622
-2.0407681 -0.090999998 0.91707355
-1.923555 0.014 1.1041727
-1.8924021 0.024 1.0377612
-1.8809704 0.034000002 0.97821021
-1.8775313 0.041000001 0.91900575
-1.9016623 0.059999999 1.1012218
-1.8764603 0.068999998 1.0360692
-1.8619883 0.075999998 0.97738737
-1.861503 0.082000002 0.91931188
-1.8927141 0.106 1.099833
-1.8654706 0.112 1.0355928
-1.8559506 0.119 0.97812659
-3.7895544 0.58399999 1.2831553
-0.77853185 0.139 0.96445179
-0.78352422 0.141 0.94164658
-0.80954021 0.145 0.91875184
-0.78244448 0.15899999 0.98964483
-0.75959301 0.155 0.96262985
-0.76254398 0.155 0.94073707
-0.76349676 0.154 0.91875774
-0.72267401 0.16500001 0.98305005
-0.75060147 0.171 0.96224004
-0.74951285 0.17 0.94117314
-0.75346285 0.169 0.91932368
-0.74161291 0.189 0.98487198
-0.7396118 0.18700001 0.96176362
-0.7335279 0.185 0.94048017
-0.73443735 0.182 0.91949987
-0.74461001 0.20900001 0.98500192
-0.73561555 0.205 0.96159041
-0.7335279 0.20200001 0.94048017
-0.73543644 0.2 0.91954321
-0.72467214 0.222 0.98313665
-0.72362685 0.22 0.96107072
-0.72553539 0.21799999 0.94013369
-0.72340435 0.214 0.92002255
-0.73861569 0.24600001 0.98474205
-0.72762305 0.23999999 0.96124393
-0.71749955 0.234 0.9407863
-0.72640157 0.233 0.92015249
-0.74161291 0.26699999 0.98487198
-0.73761368 0.26199999 0.96167701
-0.72049677 0.25299999 0.94091624
-0.72136295 0.249 0.92093498
-0.74061376 0.287 0.98482871
-0.7396118 0.28299999 0.96176362
-0.72948831 0.27500001 0.94130599
-0.71436948 0.26499999 0.92063183
-0.75755161 0.31 0.96354228
-0.75146765 0.303 0.94225883
-0.75137806 0.29800001 0.9212352
-1.3465707 1.683 1.0451287
-1.3888749 1.678 1.0159334
-1.327632 1.742 1.0433067
-1.3289746 1.684 1.0123359
-1.370193 1.6799999 0.98509544
-1.3255906 1.826 1.0442193
-1.3289312 1.767 1.0133349
-1.3331844 1.714 0.98449206
-1.3572023 1.682 0.96151066
-1.3335397 1.933 1.0455648
-1.3188974 1.841 1.0139009
-1.3261043 1.788 0.98618698
-1.3280995 1.725 0.96325189
-1.3304993 2.0280001 1.0464339
-1.3288013 1.949 1.0163321
-1.3280128 1.807 0.96525002
-1.327502 2.132 1.046304
-1.328758 2.049 1.0173311
-1.3249321 1.9680001 0.99013996
-1.3244616 2.2420001 1.047173
-1.3227203 2.148 1.0180703
-1.3278426 2.073 0.99226797
-1.3287522 1.99 0.97128767
-1.3164257 2.355 1.0478257
-1.3236328 2.2650001 1.0201118
-1.3257145 2.178 0.99517858
-1.3306203 2.0940001 0.97437149
-1.3215481 2.388 1.0220233
-1.3216317 2.289 0.99700344
-1.3274499 2.1989999 0.97823781
-1.3155073 2.402 0.99974078
-1.3212823 2.3039999 0.98197418
1.037156 2.3770001 0.87172908
1.0330732 2.2290001 0.86990416
1.0323714 2.3410001 0.92298436
1.0157278 2.4230001 0.97775656
1.0240382 2.085 0.86929488
1.0302433 2.1989999 0.92007381
1.0326253 2.312 0.9750222
1.0204111 2.405 1.0396118
1.0200421 1.965 0.86946809
1.0251614 2.063 0.91829222
1.0264577 2.1630001 0.97128582
1.0292294 2.2750001 1.0352257
1.0180006 1.8559999 0.86855567
1.0180813 1.937 0.91659725
1.0223316 2.03 0.96846181
1.0229752 2.1270001 1.0294912
1.0189996 1.762 0.86851239
1.0200362 1.837 0.91551155
1.0192044 1.9119999 0.96559459
1.0238011 2.0039999 1.0254517
1.0569206 1.735 0.86586756
1.0209485 1.742 0.91347015
1.0140792 1.802 0.96281397
1.0205873 1.888 1.0205863
1.1118258 1.737 0.86248648
1.0729431 1.739 0.91221714
1.0340604 1.7410001 0.96194774
1.0164179 1.78 1.0167633
1.1617355 1.727 0.85932201
1.1249375 1.734 0.91096413
1.0890954 1.74 0.96156389
1.0474321 1.737 1.0164198
1.2186821 1.728 0.85685337
1.1739349 1.722 0.90984106
1.1401775 1.732 0.96235234
1.1015979 1.733 1.0190763
1.2775835 1.727 0.85329908
1.233922 1.724 0.90824157
1.1962548 1.727 0.96292418
1.1617582 1.7359999 1.0214732
1.3354857 1.722 0.84978807
1.2909117 1.719 0.90677202
1.2563285 1.727 0.96332282
1.2179222 1.729 1.0240432
1.3973843 1.721 0.84610385
1.3579355 1.724 0.90586841
1.3204417 1.729 0.96454728
1.282122 1.732 1.0272658
1.4603251 1.7180001 0.84337538
1.4199207 1.721 0.90418231
1.3805152 1.722 0.96494597
1.3422822 1.727 1.0296625
1.5262198 1.716 0.83951795
1.4869443 1.721 0.90327877
1.4476256 1.722 0.96604049
1.4084802 1.726 1.0327985
1.599108 1.7180001 0.83535731
1.5549673 1.7180001 0.90233183
1.5136937 1.7180001 0.96617925
1.4736357 1.721 1.0349787
1.6780338 1.724 0.83193588
1.6349788 1.726 0.90086526
1.591837 1.725 0.9677965
1.5499109 1.725 1.0396798
1.7119931 1.725 0.89952856
1.6699804 1.726 0.9694137
1.6221032 1.721 1.0425558
1.7043728 1.724 1.046997
3.7216606 -0.213 0.89448708
3.6803672 -0.26499999 0.77316159
3.7157528 -0.29800001 0.89674503
3.6814961 -0.347 0.77611548
3.7458544 -0.38800001 0.89844292
3.6876206 -0.43200001 0.77885282
3.7099316 -0.47099999 0.90100116
3.6727211 -0.51300001 0.78150058
-1.4469997 -2.5339999 1.0604926
-1.4422642 -2.3959999 1.0542817
-1.44566 -2.4349999 1.1144853
-1.4425241 -2.277 1.0482873
-1.4459721 -2.467 1.1765569
-1.4469622 -2.313 1.1075351
-1.4437829 -2.1670001 1.0423362
-1.445851 -2.5020001 1.2486193
-1.4482733 -2.3429999 1.1696502
-1.444225 -2.194 1.1014107
-1.4420013 -2.0610001 1.0372543
-1.4461975 -2.3710001 1.2406268
-1.4465784 -2.2219999 1.1625701
-1.4394895 -2.079 1.0951999
-1.5040299 -2.0480001 1.0379413
-1.447543 -2.25 1.2326777
-1.4448835 -2.108 1.15549
-1.4934821 -2.053 1.0965395
-1.582999 -2.0539999 1.0403637
-1.4418951 -2.128 1.2244253
-1.4828911 -2.0580001 1.1561368
-1.5703666 -2.0569999 1.1008734
-1.6530199 -2.046 1.0413972
-1.4670016 -2.056 1.2225108
-1.5526955 -2.052 1.1621655
-1.6442538 -2.052 1.1050773
-1.5436262 -2.0580001 1.2328391
-1.6284943 -2.049 1.1684543
-1.7131459 -2.039 1.1090647
-1.6173402 -2.052 1.2410393
-1.7062478 -2.0450001 1.1758286
-1.693009 -2.0450001 1.2503251
-1.5858605 -0.972 0.99744737
-1.6012882 -0.97600001 1.0571716
-1.6146747 -0.97799999 1.1178082
-1.6267589 -0.97799999 1.185395
-3.2073808 -1.327 1.0667388
-2.9522283 -1.3200001 1.3879899
-3.1037247 -1.322 1.2874568
-3.2503121 -1.3200001 1.1847088
-3.401242 -1.318 1.0741417
-3.1511314 -1.318 1.417632
-3.3020182 -1.316 1.308064
-3.4608543 -1.312 1.1998415
-3.6271167 -1.313 1.0819315
-3.366019 -1.313 1.4479671
-3.5381029 -1.313 1.3343132
-3.7232609 -1.3150001 1.2192242
-3.6126604 -1.309 1.4846833
-3.808701 -0.417 1.2109168
-3.7934806 -0.38100001 1.0771321
-3.8155131 -0.40099999 1.492476
-3.7979455 -0.36300001 1.3435754
-3.806746 -0.32699999 1.2098311
-2.1080635 -0.164 1.0040697
-3.8036544 -0.30599999 1.4889591
-3.7949915 -0.27200001 1.3424464
-2.0779705 -0.13 1.0748328
-2.0651038 -0.114 1.0022074
-2.0942793 -0.117 1.2296844
-2.0718551 -0.098999999 1.1466353
-1.9044371 0.011 1.0603036
-1.8912672 0.022 0.99467164
-1.9571452 0.032000002 1.2067237
-1.9224722 0.044 1.1291493
-1.8874962 0.054000001 1.0585682
-1.8682888 0.063000001 0.99367553
-1.9352524 0.079000004 1.2037728
-1.8995805 0.088 1.126155
-1.8645612 0.096000001 1.0565732
-1.8563 0.104 0.99315584
-1.9213523 0.125 1.2011683
-3.7260385 0.54000002 1.2013277
-1.9770832 0.32300001 1.208589
-2.0470088 0.34 1.1425554
-1.9999316 0.377 1.2125822
-2.0071328 0.382 1.1388249
-1.3289924 1.698 1.1504662
-1.3520514 1.677 1.1034207
-1.3899665 1.677 1.0600221
-1.3278199 1.783 1.1544192
-1.3290297 1.729 1.1034237
-1.3310652 1.684 1.0564678
-1.3718042 1.682 1.0171953
-1.3219063 1.807 1.1061177
-1.3249409 1.757 1.0592052
-1.3277589 1.706 1.0172879
-1.3376315 1.921 1.112805
-1.3237686 1.8430001 1.063158
-1.3275857 1.786 1.0212841
-1.328256 2.0769999 1.1674503
-1.329509 2.006 1.1154557
-1.3305454 1.944 1.0684565
-1.3250424 2.1830001 1.1723156
-1.3292925 2.1110001 1.1204511
-1.3293732 2.0409999 1.0724095
-1.3371865 1.9809999 1.0307088
-1.3198304 2.296 1.1770945
-1.3270779 2.221 1.1253598
-1.3271585 2.1440001 1.0773182
-1.3299766 2.0699999 1.0354009
-1.3146186 2.4159999 1.1818732
-1.3248631 2.339 1.1302685
-1.3239448 2.253 1.0821836
-1.3277619 2.1730001 1.0403095
-1.3226858 2.375 1.0881346
-1.321551 2.279 1.045045
-1.3222469 2.4030001 1.0520818
1.0321922 2.273 0.96503156
1.0319697 2.3859999 1.0060797
1.0248955 2.1289999 0.9583413
1.027627 2.234 0.99826044
1.0314873 2.3469999 1.0411335
1.0165823 2.425 1.0898247
1.0226376 2.006 0.95243353
1.0223285 2.095 0.99148357
1.0271448 2.197 1.0333142
1.0303092 2.303 1.0832241
1.0184249 1.89 0.94761145
1.0170734 1.969 0.98570573
1.0238444 2.0639999 1.0264508
1.0290071 2.1630001 1.0762739
1.0192072 1.793 0.94257283
1.0138596 1.855 0.98084038
1.0205873 1.943 1.0205863
1.020668 2.0220001 1.0686278
1.0390586 1.735 0.9387095
1.0176827 1.766 0.97667086
1.0183727 1.834 1.0156776
1.0183668 1.904 1.0617211
1.0919657 1.734 0.93541503
1.0496093 1.728 0.9742859
1.0201542 1.7410001 1.0105957
1.016152 1.798 1.0568124
1.1439167 1.728 0.93316299
1.1036019 1.727 0.97294629
1.0752759 1.7410001 1.0122099
1.0400863 1.742 1.0547739
1.1928275 1.717 0.93004179
1.1595927 1.725 0.97152007
1.1263146 1.732 1.0119992
1.0912117 1.734 1.0565614
1.2547693 1.721 0.9273566
1.2126296 1.7180001 0.97122282
1.1824354 1.728 1.0135702
1.1464199 1.7309999 1.0601737
1.3166679 1.723 0.92367238
1.273659 1.719 0.97057909
1.2395117 1.725 1.0140988
1.2055811 1.73 1.0626138
1.3786097 1.723 0.92098725
1.3386847 1.723 0.96976209
1.2986296 1.722 1.0155398
1.2708232 1.734 1.0667921
1.4425496 1.722 0.91821545
1.3976727 1.716 0.96820593
1.3657833 1.725 1.0176334
1.3300278 1.728 1.0702313
1.5074887 1.7180001 0.91540039
1.4657388 1.7180001 0.96825808
1.4318947 1.725 1.0187713
1.396269 1.728 1.0743663
1.5754249 1.716 0.91245532
1.5357596 1.719 0.9672246
1.4970069 1.72 1.0199524
1.4604688 1.722 1.0775889
1.6523527 1.721 0.90912056
1.6118183 1.723 0.96693027
1.5701549 1.721 1.0217862
1.5307062 1.72 1.0815507
1.6868778 1.722 0.96667928
1.6513388 1.727 1.0242724
1.6110209 1.726 1.0870775
1.6923348 1.729 1.0925611
3.7059443 -0.33199999 0.83210921
3.7070298 -0.41600001 0.83406401
3.7040761 -0.50099999 0.83519298
-1.4440084 -2.4300001 1.1064061
-1.442276 -2.457 1.1463686
-1.4443982 -2.3069999 1.0974146
-1.4474504 -2.4960001 1.1886324
-1.4466188 -2.339 1.1385493
-1.4457437 -2.194 1.0894654
-1.4477969 -2.3659999 1.1806399
-1.444967 -2.217 1.1304702
-1.4420506 -2.0829999 1.0822988
-1.4436333 -2.3859999 1.2305063
-1.4451463 -2.2409999 1.1725174
-1.440275 -2.102 1.1232603
-1.492177 -2.053 1.0804679
-1.4419384 -2.2609999 1.2234262
-1.4404541 -2.122 1.1653074
-1.4773701 -2.052 1.1218655
-1.5661508 -2.0550001 1.0826737
-1.4422415 -2.1459999 1.2164328
-1.4665595 -2.0550001 1.1634363
-1.5532556 -2.0550001 1.126156
-1.6351727 -2.046 1.0836639
-1.4544468 -2.056 1.2119572
-1.5423151 -2.0569999 1.170724
-1.6241456 -2.0480001 1.1302301
-1.7061927 -2.036 1.0847408
-1.5291166 -2.0550001 1.2211998
-1.6151166 -2.0510001 1.1768827
-1.7000742 -2.0450001 1.1335216
-1.6047854 -2.052 1.2304857
-1.6889173 -2.0439999 1.1830848
-1.6804543 -2.0450001 1.2397715
-1.5309583 -0.99599999 1.0170881
-1.5899463 -0.98400003 1.0186442
-1.6087177 -0.99000001 1.0705059
-1.6184545 -0.99000001 1.1229768
-1.6249341 -0.986 1.1813121
-3.1691597 -1.324 1.0941093
-2.9146538 -1.316 1.3773526
-3.0596359 -1.319 1.2885484
-3.2126102 -1.3200001 1.2000905
-3.3570266 -1.3150001 1.1012523
-3.1205502 -1.319 1.4072978
-3.2648363 -1.317 1.3114568
-3.4171584 -1.312 1.2149632
-3.5828578 -1.311 1.110041
-3.3284445 -1.313 1.4373298
-3.4880197 -1.312 1.3351449
-3.6655784 -1.311 1.2337396
-3.5750856 -1.311 1.474046
-3.7440424 -1.308 1.3632594
-3.7910063 -0.39399999 1.0880351
-3.8284576 -0.417 1.4940381
-3.8067205 -0.38 1.3489605
-3.8103957 -0.34299999 1.2179968
-3.7990851 -0.30899999 1.0863835
-3.8255036 -0.32300001 1.4929091
-3.8008127 -0.289 1.3467026
-2.0907853 -0.14 1.0793921
-2.069926 -0.121 1.0064201
-2.0767207 -0.108 1.1498491
-1.917295 0.0040000002 1.0638638
-1.8992164 0.016000001 0.99601716
-1.9580576 0.025 1.2087651
-1.9383273 0.035999998 1.1328394
-1.8944032 0.046999998 1.0608696
-1.8852295 0.057999998 0.99541086
-1.938163 0.071999997 1.2059008
-1.9134375 0.081 1.1297586
-1.8784615 0.090000004 1.0591775
-1.8532596 0.097999997 0.99402493
-1.9252619 0.118 1.2033397
-3.7600501 0.53100002 1.2018012
-3.7347524 0.537 1.0695815
-1.9809061 0.31600001 1.2127584
-2.0589106 0.333 1.1450732
-1.9938507 0.368 1.2143205
-3.7837598 0.79400003 1.4860947
-1.3286458 1.686 1.1584587
-1.3692521 1.6849999 1.0991617
-1.40078 1.675 1.041473
-1.4382159 1.67 0.98604232
-1.3225216 1.765 1.161196
-1.3273346 1.714 1.0963436
-1.3428777 1.684 1.0379621
-1.3841798 1.683 0.98570174
-1.3163972 1.845 1.1639334
-1.3202547 1.789 1.0980386
-1.3258071 1.743 1.0392239
-1.3331844 1.697 0.98449206
-1.327127 1.957 1.1704042
-1.3227233 1.824 1.041092
-1.3231072 1.7640001 0.9860571
-1.3259114 2.0580001 1.1753561
-1.3315848 1.927 1.044479
-1.316027 1.84 0.98775202
-1.3217419 2.1619999 1.1791792
-1.3267283 2.089 1.1103305
-1.3284577 2.0209999 1.0473464
-1.3259311 1.944 0.99018323
-1.315531 2.2709999 1.1839147
-1.323558 2.1949999 1.1141968
-1.3273288 2.1229999 1.0503002
-1.3248022 2.0409999 0.99313712
-1.312274 2.392 1.189779
-1.3203442 2.3099999 1.1190622
-1.3231592 2.227 1.0541232
-1.3196769 2.138 0.99591774
-1.3190331 2.342 1.0569471
-1.3205459 2.2520001 0.99895823
-1.3214152 2.375 1.0019988
1.0379267 2.3080001 0.95877737
1.0277599 2.411 0.9782359
1.0285887 2.1559999 0.95117462
1.0344934 2.2780001 0.97193837
1.0353596 2.3970001 0.99191964
1.0283289 2.0350001 0.94518024
1.0272403 2.1329999 0.9662472
1.0321459 2.2449999 0.98705423
1.0363557 2.3659999 1.0148981
1.0240726 1.9170001 0.93935913
1.0259813 2.0109999 0.96029609
1.026934 2.1040001 0.98227549
1.033142 2.2160001 1.0100327
1.0178618 1.806 0.93462366
1.0197703 1.891 0.95556068
1.0257617 1.984 0.97832251
1.0249763 2.0699999 1.0063828
1.0316753 1.737 0.93002111
1.0205961 1.7920001 0.9515211
1.0185518 1.864 0.97363037
1.0207635 1.9450001 1.0015608
1.0855814 1.738 0.92668337
1.0414898 1.735 0.94861346
1.02042 1.768 0.9705466
1.0176364 1.8329999 0.99869353
1.1344489 1.728 0.92256308
1.0944835 1.733 0.94731718
1.0574286 1.737 0.96994323
1.0225451 1.745 0.99647886
1.190353 1.727 0.91913873
1.1504309 1.732 0.94489187
1.1134627 1.737 0.96951604
1.072628 1.735 0.99731064
1.2462138 1.724 0.91471529
1.2034245 1.725 0.94359553
1.1615043 1.725 0.96943533
1.1257516 1.729 0.99901146
1.3101104 1.729 0.91094446
1.2633682 1.725 0.940997
1.2235761 1.727 0.96974736
1.1839137 1.728 1.0014949
1.3680128 1.723 0.90743345
1.3273515 1.728 0.9392243
1.2826073 1.724 0.96919024
